ply
format ascii 1.0
element vertex 435
property float x
property float y
property float z
end_header
0 2 12
2 0 2
6 0 8
6 2 14
6 2 16
6 2 18
8 2 22
8 2 24
8 4 16
10 0 14
10 2 28
10 2 30
10 4 30
10 4 32
12 2 34
12 2 36
12 4 28
12 4 30
12 4 32
12 4 34
12 4 36
12 6 24
14 0 20
14 2 20
14 2 40
14 2 42
14 4 40
14 4 42
16 2 46
16 2 48
16 2 50
16 4 46
16 4 48
16 4 50
16 6 46
16 6 48
16 6 50
16 6 52
16 8 34
18 2 52
18 2 54
18 2 56
18 4 52
18 4 54
18 4 56
18 6 44
18 6 46
18 6 48
18 6 50
18 6 52
18 6 54
18 6 56
20 2 58
20 2 60
20 2 62
20 4 58
20 4 60
20 4 62
20 6 52
20 6 54
20 6 56
20 6 58
20 6 60
20 6 62
20 8 62
20 8 64
20 8 66
20 10 42
22 2 64
22 2 66
22 2 68
22 4 64
22 4 66
22 4 68
22 4 70
22 6 64
22 6 66
22 6 68
22 8 60
22 8 62
22 8 64
22 8 66
22 8 68
22 8 70
22 8 72
24 2 70
24 2 72
24 4 70
24 4 72
24 4 74
24 6 70
24 6 72
24 6 74
24 8 58
24 8 60
24 8 62
24 8 64
24 8 66
24 8 68
24 8 70
24 8 72
24 8 74
24 8 76
24 12 52
26 2 76
26 2 78
26 4 76
26 4 78
26 4 80
26 4 82
26 6 76
26 6 78
26 6 80
26 6 82
26 8 68
26 8 70
26 8 72
26 8 74
26 8 76
26 8 78
26 8 80
26 10 80
26 10 82
26 10 84
26 10 86
28 4 82
28 4 84
28 4 86
28 4 88
28 6 82
28 6 84
28 6 86
28 6 88
28 8 74
28 8 82
28 8 84
28 8 86
28 8 88
28 10 76
28 10 78
28 10 80
28 10 82
28 10 84
28 10 86
28 10 88
28 10 90
28 10 92
28 14 60
30 4 88
30 4 90
30 4 92
30 4 94
30 4 96
30 6 88
30 6 90
30 6 92
30 6 94
30 8 88
30 8 90
30 8 92
30 8 94
30 10 74
30 10 76
30 10 78
30 10 80
30 10 82
30 10 84
30 10 86
30 10 88
30 10 90
30 10 92
30 10 94
30 10 96
30 12 96
30 12 98
30 12 100
30 12 102
32 4 94
32 4 96
32 4 98
32 4 100
32 4 102
32 6 94
32 6 96
32 6 98
32 6 100
32 6 102
32 8 94
32 8 96
32 8 98
32 8 100
32 10 78
32 10 80
32 10 82
32 10 84
32 10 86
32 10 88
32 10 90
32 10 92
32 10 94
32 10 96
32 10 98
32 10 100
32 12 94
32 12 96
32 12 98
32 12 100
32 12 102
32 12 104
32 12 106
32 16 68
32 16 70
34 4 100
34 4 102
34 4 104
34 4 106
34 4 108
34 6 100
34 6 102
34 6 104
34 6 106
34 6 108
34 8 100
34 8 102
34 8 104
34 8 106
34 8 108
34 10 88
34 10 90
34 10 92
34 10 94
34 10 96
34 10 98
34 10 100
34 10 102
34 10 104
34 10 106
34 12 92
34 12 94
34 12 96
34 12 98
34 12 100
34 12 102
34 12 104
34 12 106
34 12 108
34 12 110
34 12 112
34 14 116
36 4 106
36 4 108
36 4 110
36 4 112
36 4 114
36 6 106
36 6 108
36 6 110
36 6 112
36 6 114
36 8 106
36 8 108
36 8 110
36 8 112
36 8 114
36 10 94
36 10 104
36 10 106
36 10 108
36 10 110
36 10 112
36 10 114
36 12 90
36 12 92
36 12 94
36 12 96
36 12 98
36 12 100
36 12 102
36 12 104
36 12 106
36 12 108
36 12 110
36 12 112
36 12 114
36 12 116
36 14 114
36 14 116
36 14 118
36 14 120
36 18 78
38 4 112
38 4 114
38 4 116
38 4 118
38 6 112
38 6 114
38 6 116
38 6 118
38 6 120
38 8 112
38 8 114
38 8 116
38 8 118
38 8 120
38 10 112
38 10 114
38 10 116
38 10 118
38 10 120
38 12 94
38 12 96
38 12 98
38 12 100
38 12 102
38 12 104
38 12 106
38 12 108
38 12 110
38 12 112
38 12 114
38 12 116
38 12 118
38 12 120
38 14 110
38 14 112
38 14 114
38 14 116
38 14 118
38 14 120
38 14 122
38 14 124
38 14 126
40 4 118
40 4 120
40 4 122
40 4 124
40 6 118
40 6 120
40 6 122
40 6 124
40 6 126
40 8 118
40 8 120
40 8 122
40 8 124
40 8 126
40 10 118
40 10 120
40 10 122
40 10 124
40 10 126
40 12 104
40 12 106
40 12 108
40 12 110
40 12 112
40 12 114
40 12 116
40 12 118
40 12 120
40 12 122
40 12 124
40 12 126
40 14 108
40 14 110
40 14 112
40 14 114
40 14 116
40 14 118
40 14 120
40 14 122
40 14 124
40 14 126
40 20 86
40 20 88
42 4 124
42 4 126
42 6 124
42 6 126
42 8 124
42 8 126
42 10 124
42 10 126
42 12 110
42 12 112
42 12 114
42 12 116
42 12 120
42 12 122
42 12 124
42 12 126
42 14 106
42 14 108
42 14 110
42 14 112
42 14 114
42 14 116
42 14 118
42 14 120
42 14 122
42 14 124
42 14 126
44 14 108
44 14 110
44 14 112
44 14 114
44 14 116
44 14 118
44 14 120
44 14 122
44 14 124
44 14 126
44 16 126
44 22 94
44 22 96
46 14 114
46 14 120
46 14 122
46 14 124
46 14 126
46 16 124
46 16 126
48 14 126
48 16 122
48 16 124
48 16 126
48 24 104
48 24 106
50 16 124
50 16 126
52 26 112
52 26 114
56 28 120
56 28 122
56 28 124
